NORM_ASCII
1000 1455
   0.1481210    0.0059650   -0.0246930    0.0585352    0.2208427    0.9735513
   0.1472990    0.0034300   -0.0244760   -0.1552653    0.0995839    0.9828407
   0.1466720    0.0003900   -0.0238320   -0.2435598   -0.0139129    0.9697861
   0.1454850   -0.0029060   -0.0258240   -0.4029674   -0.7112068    0.5760228
   0.1424660    0.0047420   -0.0311230   -0.5482079   -0.0586824   -0.8342808
   0.1430290    0.0073740   -0.0312660   -0.3841562    0.2478767   -0.8893712
   0.1419140    0.0026780   -0.0303680   -0.6817734   -0.2483156   -0.6881311
   0.1438950    0.0098600   -0.0293950    0.0048005    0.8781328   -0.4783929
   0.1418260    0.0013410   -0.0284950   -0.7727366   -0.6043086   -0.1941371
   0.1444800    0.0098600   -0.0260750    0.2265267    0.8598243    0.4575892
   0.1422280    0.0013410   -0.0262130   -0.6441631   -0.6546592    0.3955694
   0.1444320    0.0067890   -0.0246970    0.0919761    0.1257883    0.9877842
   0.1442420    0.0044500   -0.0256680   -0.0846540   -0.1849418    0.9790966
   0.1433910    0.0029720   -0.0252140   -0.3454023   -0.3418233    0.8739875
   0.1382800    0.0064420   -0.0279620   -0.4210029   -0.1683662   -0.8912964
   0.1391160    0.0078100   -0.0291290   -0.3819394    0.0285177   -0.9237473
   0.1376600    0.0058660   -0.0276580   -0.4221681   -0.2538460   -0.8702507
   0.1405680    0.0099610   -0.0284510    0.0040358    0.8380727   -0.5455437
   0.1371980    0.0055150   -0.0269300   -0.5281620   -0.7761409   -0.3444564
   0.1410310    0.0099610   -0.0258240    0.2413109    0.8945635    0.3761983
   0.1373440    0.0055150   -0.0261000   -0.4080324   -0.8963525    0.1733834
   0.1393760    0.0082720   -0.0242730    0.2135216    0.3397493    0.9159579
   0.1373460    0.0058890   -0.0251280   -0.1875833   -0.7940496    0.5781849
   0.1375370    0.0069280   -0.0244860    0.0740460   -0.3159618    0.9458781
   0.1195740    0.0133410   -0.0248950   -0.0923485   -0.1589251   -0.9829621
   0.1161520    0.0166880   -0.0256390    0.0396127    0.1774590   -0.9833306
   0.1205950    0.0118260   -0.0250690   -0.1776939   -0.4208651   -0.8895490
   0.1135290    0.0210820   -0.0240400    0.3152595    0.8001666   -0.5102399
   0.1217820    0.0103910   -0.0244620   -0.2528156   -0.8981248   -0.3598002
   0.1141150    0.0210820   -0.0207200    0.4427270    0.8324462    0.3332058
   0.1220140    0.0103910   -0.0231480   -0.1810029   -0.9445869    0.2738495
   0.1188640    0.0168930   -0.0193950    0.3432612    0.3475732    0.8725621
   0.1223490    0.0106500   -0.0213630   -0.0195091   -0.6373780    0.7703042
   0.1231510    0.0123690   -0.0199860    0.1700298   -0.1465164    0.9744859
   0.1066050    0.0179070   -0.0261860    0.0181913    0.0460251   -0.9987746
   0.1060920    0.0216780   -0.0256860    0.1297024    0.4411526   -0.8880099
   0.1056670    0.0149580   -0.0253310   -0.0182377   -0.3865554   -0.9220858
   0.1057530    0.0248580   -0.0229560    0.3073193    0.8572740   -0.4130813
   0.1053500    0.0128300   -0.0226700   -0.0056088   -0.9094908   -0.4156862
   0.1064350    0.0248580   -0.0190810    0.4001601    0.8493837    0.3441210
   0.1059590    0.0128300   -0.0192110    0.1035362   -0.9022303    0.4186415
   0.1078430    0.0212730   -0.0170780    0.3191772    0.3640998    0.8749613
   0.1075250    0.0151190   -0.0173030    0.2300484   -0.3241207    0.9176184
   0.1088220    0.0176640   -0.0174600    0.2533825    0.0461221    0.9662660
   0.0993560    0.0205790   -0.0250230    0.1089128    0.1874563   -0.9762162
   0.0986540    0.0243280   -0.0242340    0.2023441    0.5745388   -0.7930712
   0.0994290    0.0162230   -0.0254910    0.0337093   -0.2804170   -0.9592862
   0.0980080    0.0272700   -0.0214460    0.2897871    0.8954311   -0.3379743
   0.1000370    0.0117440   -0.0226590    0.0301354   -0.8837325   -0.4670211
   0.0986420    0.0272700   -0.0178500    0.3517902    0.8818469    0.3139900
   0.1009630    0.0117440   -0.0174030    0.1547608   -0.8825087    0.4441029
   0.1014990    0.0238110   -0.0157270    0.3196722    0.4664749    0.8247489
   0.1026780    0.0157690   -0.0148140    0.2905518   -0.2343401    0.9277200
   0.1037420    0.0196080   -0.0155270    0.3004031    0.1662976    0.9392034
   0.0956630    0.0218430   -0.0259880    0.0551729    0.2742391   -0.9600775
   0.0941650    0.0264430   -0.0240960    0.1549268    0.6456270   -0.7477723
   0.0948350    0.0168820   -0.0259410   -0.0483195   -0.2052623   -0.9775135
   0.0923550    0.0293580   -0.0204500    0.2279552    0.9271284   -0.2974381
   0.0947530    0.0121730   -0.0221910   -0.0977749   -0.8716498   -0.4802777
   0.0929900    0.0293580   -0.0168530    0.2721713    0.9149454    0.2979895
   0.0958380    0.0121730   -0.0160350    0.0498454   -0.8706634    0.4893473
   0.0961470    0.0258650   -0.0146900    0.2902777    0.5402782    0.7898344
   0.0976990    0.0171200   -0.0132380    0.2511732   -0.1773319    0.9515595
   0.0986540    0.0215030   -0.0143990    0.3009886    0.2389194    0.9232136
   0.0865850    0.0252920   -0.0228860   -0.4169480    0.3206154   -0.8505058
   0.0882570    0.0280410   -0.0222140   -0.2172861    0.7601061   -0.6123932
   0.0880640    0.0193850   -0.0247470   -0.6258895   -0.2079258   -0.7516843
   0.0898370    0.0297250   -0.0198270   -0.1775025    0.9703805   -0.1638733
   0.0899940    0.0124070   -0.0218160   -0.6562213   -0.7154279   -0.2398678
   0.0904110    0.0297250   -0.0165770   -0.1898909    0.8904709    0.4135250
   0.0912370    0.0124070   -0.0147620   -0.4717362   -0.6868758    0.5528712
   0.0922890    0.0273300   -0.0139640   -0.1048049    0.4890276    0.8659491
   0.0928390    0.0182970   -0.0114920   -0.1599837   -0.0721449    0.9844797
   0.0933830    0.0234950   -0.0127760   -0.0466265    0.2660433    0.9628328
   0.0844030    0.0262150   -0.0206560   -0.9848648    0.1481849    0.0899027
   0.0861670    0.0276390   -0.0201650   -0.6204746    0.7426393    0.2519884
   0.0865410    0.0213710   -0.0227530   -0.9239986   -0.3547970    0.1426380
   0.0877860    0.0282280   -0.0187530   -0.7515590    0.6031214    0.2672146
   0.0889150    0.0152680   -0.0208770   -0.9388630   -0.2856846    0.1921471
   0.0881160    0.0282280   -0.0168840   -0.8126081    0.3591595    0.4589908
   0.0899020    0.0152680   -0.0152750   -0.8997688   -0.2181068    0.3779492
   0.0892460    0.0268380   -0.0153870   -0.6755931    0.1152237    0.7282152
   0.0904830    0.0205700   -0.0130830   -0.7380292    0.0306682    0.6740714
   0.0899250    0.0246120   -0.0147060   -0.6526562    0.1187698    0.7482871
   0.0878870    0.0251470   -0.0178080   -0.8558135   -0.0496159    0.5148995
   0.1423310    0.0018150   -0.0419320    0.7874022   -0.4940669   -0.3686403
   0.1394500    0.0024160   -0.0453680    0.4721687   -0.2511810   -0.8449644
   0.1409650    0.0037900   -0.0439500    0.6357045    0.2838178   -0.7178630
   0.1420560    0.0034990   -0.0423830    0.8217003    0.4262234   -0.3783415
   0.1422690    0.0034880   -0.0413810    0.8938631    0.4243312   -0.1447475
   0.1426920    0.0030280   -0.0403230    0.9535260    0.2984018    0.0417679
   0.1428310    0.0017920   -0.0395910    0.8768994   -0.3924803    0.2775006
   0.1410650    0.0007970   -0.0396980    0.4236310   -0.8951418    0.1387728
   0.1392810    0.0003280   -0.0405510    0.3287827   -0.9436519   -0.0377223
   0.1389720    0.0003420   -0.0419980    0.3263882   -0.9274992   -0.1822524
   0.1389800    0.0006770   -0.0438660    0.3479217   -0.7796746   -0.5206323
   0.1371300    0.0030160   -0.0456310   -0.0473565    0.0756488   -0.9960093
   0.1390080    0.0048510   -0.0442920    0.1512538    0.6823774   -0.7151806
   0.1359150    0.0006220   -0.0443660   -0.0148241   -0.6388815   -0.7691623
   0.1405400    0.0049850   -0.0424030    0.4675860    0.8275701   -0.3106300
   0.1408970    0.0049690   -0.0407330    0.6369274    0.7648750    0.0963830
   0.1413050    0.0041820   -0.0390330    0.6402708    0.5057162    0.5781906
   0.1412750    0.0022800   -0.0379450    0.4522770    0.1292546    0.8824618
   0.1386440    0.0005150   -0.0378250    0.2541478   -0.5118476    0.8206223
   0.1358410   -0.0006950   -0.0392010    0.1228942   -0.9524916    0.2786697
   0.1352700   -0.0006680   -0.0418710    0.0443094   -0.9592003   -0.2792338
   0.1354200    0.0035100   -0.0447040   -0.3860840    0.1879848   -0.9031062
   0.1366670    0.0055440   -0.0438720   -0.1445137    0.5875251   -0.7961973
   0.1328780    0.0014240   -0.0437620   -0.4381439   -0.2777944   -0.8549036
   0.1378200    0.0064440   -0.0420520    0.3263065    0.8593604   -0.3937305
   0.1308510   -0.0001030   -0.0411450   -0.5029899   -0.7978076   -0.3324217
   0.1382700    0.0064240   -0.0399390    0.5582511    0.8017675    0.2133649
   0.1390950    0.0048170   -0.0385290    0.4809228    0.4169190    0.7712923
   0.1395420    0.0027240   -0.0382370    0.2124613    0.2131226    0.9536451
   0.1357340    0.0013110   -0.0372080    0.0041516   -0.0060254    0.9999732
   0.1315050   -0.0001330   -0.0380860   -0.3104745   -0.7175581    0.6234709
   0.1335190    0.0040660   -0.0435490   -0.3404857    0.1026683   -0.9346276
   0.1342120    0.0062950   -0.0434660   -0.0124127    0.6216145   -0.7832250
   0.1312600    0.0025230   -0.0425770   -0.7302354   -0.0923453   -0.6769258
   0.1351450    0.0081580   -0.0417980    0.1801274    0.9252680   -0.3338163
   0.1294200    0.0015760   -0.0404250   -0.9782582   -0.1511254   -0.1420280
   0.1357290    0.0081310   -0.0390710    0.3184777    0.8919226    0.3210077
   0.1299080    0.0015540   -0.0381440   -0.6990515   -0.5249085    0.4855904
   0.1371300    0.0056510   -0.0377290    0.3588145    0.5032428    0.7861290
   0.1381550    0.0030990   -0.0380370    0.3420439   -0.1246591    0.9313786
   0.1341240    0.0021460   -0.0374340    0.0023879   -0.6610330    0.7503530
   0.1309320    0.0047300   -0.0439420   -0.3495938   -0.1878159   -0.9178831
   0.1309090    0.0070420   -0.0425400   -0.1000057    0.4882567   -0.8669511
   0.1300800    0.0029950   -0.0421340   -0.6408884   -0.3635640   -0.6760793
   0.1306650    0.0079570   -0.0403970    0.1148869    0.9314365   -0.3452928
   0.1297310    0.0028720   -0.0400430   -0.8763853   -0.4701613   -0.1043893
   0.1310550    0.0079390   -0.0385600    0.2246302    0.9542299    0.1974502
   0.1300400    0.0028580   -0.0385950   -0.5270584   -0.8461193    0.0793198
   0.1346210    0.0063390   -0.0371980    0.3388901    0.7330237    0.5897709
   0.1336690    0.0022450   -0.0373000   -0.0753113   -0.9831298    0.1666851
   0.1376640    0.0033030   -0.0364280    0.4029256   -0.2994833    0.8648472
   0.1281780    0.0055580   -0.0417600   -0.3423114   -0.1237156   -0.9314061
   0.1252630    0.0085350   -0.0412700   -0.2416579    0.2706319   -0.9318583
   0.1218880    0.0058620   -0.0395970   -0.2938422   -0.4402200   -0.8484475
   0.1226940    0.0114780   -0.0391350    0.1626787    0.8747609   -0.4564307
   0.1159250    0.0070190   -0.0370010   -0.2651124   -0.9205821   -0.2867821
   0.1232640    0.0114510   -0.0364640    0.3550831    0.9131408    0.2002246
   0.1161860    0.0070070   -0.0357770   -0.1952201   -0.9654391    0.1726744
   0.1292530    0.0084930   -0.0351810    0.3776254    0.5600226    0.7374102
   0.1251150    0.0044810   -0.0353390   -0.0930187   -0.7906314    0.6051855
   0.1346230    0.0041700   -0.0350320    0.2778042    0.1864863    0.9423628
   0.1012530    0.0129290   -0.0360610   -0.0444698    0.0427336   -0.9980963
   0.1019390    0.0146300   -0.0359180    0.0546426    0.3739901   -0.9258216
   0.0994010    0.0113020   -0.0357580   -0.0756250   -0.3600309   -0.9298702
   0.1027760    0.0159480   -0.0346080    0.3036061    0.8259912   -0.4749336
   0.0979050    0.0097430   -0.0339040   -0.0493369   -0.9054244   -0.4216307
   0.1032150    0.0159270   -0.0325490    0.4302075    0.9025196    0.0194918
   0.0984500    0.0097180   -0.0313440    0.0278178   -0.9426376    0.3326567
   0.1173880    0.0108170   -0.0338570    0.3707778    0.3693866    0.8521017
   0.1149070    0.0071700   -0.0330280    0.2530159    0.0710887    0.9648468
   0.1311580    0.0050310   -0.0361800    0.2291438    0.4149766    0.8805041
   0.0778860    0.0190180   -0.0377020   -0.0194899    0.2175261   -0.9758599
   0.0887390    0.0206320   -0.0365670    0.1396329    0.6346691   -0.7600643
   0.0778580    0.0124930   -0.0372500   -0.0622200   -0.2943098   -0.9536826
   0.0988980    0.0188840   -0.0343810    0.3575178    0.8774185   -0.3198715
   0.0789880    0.0068240   -0.0325290   -0.0020309   -0.8820903   -0.4710759
   0.0995880    0.0188530   -0.0311540    0.4603914    0.8876834    0.0076174
   0.0805800    0.0067500   -0.0250750    0.1122128   -0.9075215    0.4047382
   0.1092790    0.0133650   -0.0317210    0.4366028    0.4296836    0.7904113
   0.1006000    0.0090390   -0.0270510    0.3030467   -0.0232937    0.9526910
   0.1186430    0.0084140   -0.0344720    0.2932094    0.2720968    0.9165106
   0.0676390    0.0218800   -0.0343110   -0.5530929    0.6546338   -0.5153085
   0.0816760    0.0222500   -0.0346170    0.0224772    0.9726472   -0.2311975
   0.0707140    0.0145380   -0.0356240   -0.6722706   -0.3146246   -0.6701221
   0.0952640    0.0199680   -0.0336400    0.2175035    0.9611160   -0.1701420
   0.0748270    0.0070430   -0.0319460   -0.5431682   -0.7772658   -0.3175315
   0.0959640    0.0199360   -0.0303580    0.3849957    0.8751977    0.2929288
   0.0765370    0.0069640   -0.0239350   -0.2000316   -0.7980018    0.5684897
   0.0992430    0.0164690   -0.0291370    0.4028743    0.4446618    0.7999801
   0.0902930    0.0113090   -0.0240760    0.2307457   -0.2779745    0.9324627
   0.1020820    0.0129940   -0.0299340    0.3741020    0.0829778    0.9236679
   0.0697540    0.0213930   -0.0327830   -0.3875811    0.2014331    0.8995586
   0.0788900    0.0227510   -0.0336500   -0.0949360    0.7629989    0.6393902
   0.0705370    0.0161950   -0.0335190   -0.7798508   -0.0627512    0.6228122
   0.0881420    0.0229000   -0.0324450    0.0287436    0.9927698    0.1165419
   0.0721080    0.0108230   -0.0303860   -0.9144217    0.2169130    0.3417334
   0.0889730    0.0228620   -0.0285500    0.2186962    0.9324303    0.2876554
   0.0734280    0.0107630   -0.0242100   -0.5406968   -0.0200384    0.8409788
   0.0914160    0.0198620   -0.0258710    0.2841691    0.5743859    0.7676775
   0.0836730    0.0131730   -0.0227500    0.0504418   -0.1895031    0.9805836
   0.0930950    0.0155900   -0.0251160    0.2841222    0.0903404    0.9545225
   0.0733860    0.0204200   -0.0330810   -0.2053213    0.1260077    0.9705489
   0.0793590    0.0222280   -0.0331810   -0.1821792    0.5123506    0.8392303
   0.0735960    0.0158940   -0.0334760   -0.3474330    0.1843527    0.9194044
   0.0853540    0.0227700   -0.0315710   -0.3058349    0.8435649    0.4414332
   0.0745300    0.0113570   -0.0305100   -0.4982717    0.6986391    0.5134479
   0.0860660    0.0227370   -0.0282340   -0.2743052    0.8577507    0.4347648
   0.0756940    0.0113040   -0.0250570   -0.5037327    0.6699133    0.5454077
   0.0879020    0.0204080   -0.0256630   -0.1805846    0.4508839    0.8741241
   0.0826880    0.0138890   -0.0231840   -0.1904034    0.4283225    0.8833382
   0.0890250    0.0166870   -0.0246300   -0.0789600    0.3414327    0.9365837
   0.0802650    0.0188050   -0.0287970   -0.4817085    0.5564592    0.6769860
   0.1163490    0.0361860    0.0181710    0.5353922    0.7879143    0.3042142
   0.1167830    0.0330610    0.0199360    0.6895328    0.3910180    0.6096306
   0.1165880    0.0330600    0.0166690    0.9740381   -0.1246670    0.1889653
   0.1125610    0.0330680    0.0211880    0.2333113    0.5151234    0.8247507
   0.1077320    0.0330760    0.0222290   -0.3703077    0.9135641    0.1681453
   0.1114030    0.0330690    0.0182190   -0.4758096    0.5500533   -0.6863283
   0.1166890    0.0330600    0.0165240    0.4390302    0.3609782   -0.8227680
   0.1166880    0.0286870    0.0226810    0.8353576    0.4124040    0.3634565
   0.1094010    0.0286990    0.0245370    0.2313303    0.5459925    0.8052195
   0.1159300    0.0286860    0.0151360    0.8085391   -0.0150492   -0.5882499
   0.1046400    0.0287070    0.0263280    0.1033028    0.5934612    0.7982057
   0.1008740    0.0287120    0.0258500   -0.5808734    0.7943135    0.1779106
   0.1057650    0.0287030    0.0204820   -0.6911461    0.2481339   -0.6787832
   0.1091630    0.0286970    0.0167110   -0.4286004    0.1199142   -0.8955011
   0.1190270    0.0236820    0.0197930    0.9196949    0.2550082   -0.2985499
   0.1189980    0.0236830    0.0243050    0.8535856    0.4261207    0.2996879
   0.1151300    0.0236900    0.0272070    0.3638794    0.5718036    0.7352772
   0.1119260    0.0236960    0.0284710    0.0706669    0.5121011    0.8560132
   0.1087150    0.0237010    0.0278950    0.0658453    0.2771083    0.9585799
   0.1055860    0.0237060    0.0295890    0.2991903    0.3416284    0.8909406
   0.1161710    0.0236860    0.0165530    0.3027172   -0.0601311   -0.9511816
   0.0979220    0.0237180    0.0296710   -0.2581490    0.5582899    0.7884614
   0.0966080    0.0237190    0.0276180   -0.9258263    0.3085480   -0.2182745
   0.1037770    0.0237070    0.0229270   -0.5166396   -0.0345477   -0.8555057
   0.1074490    0.0237000    0.0189160   -0.5411024   -0.1632317   -0.8249628
   0.1204520    0.0174300    0.0192880    0.9309681   -0.0500695   -0.3616510
   0.1204890    0.0174330    0.0288650    0.8499808    0.1170433    0.5136472
   0.1167970    0.0174390    0.0305940    0.1646006    0.2572782    0.9522156
   0.1082350    0.0174510    0.0281060    0.1848517    0.3460295    0.9198334
   0.1010180    0.0174640    0.0321710    0.1909535    0.3817840    0.9043106
   0.1180090    0.0174330    0.0162290    0.0185960   -0.0458648   -0.9987746
   0.0959750    0.0174710    0.0323620   -0.6907257    0.3829587    0.6133846
   0.0969240    0.0174700    0.0294660   -0.9982553    0.0484770    0.0337103
   0.0948020    0.0174710    0.0257140   -0.9329086    0.3004484   -0.1985254
   0.0962220    0.0174700    0.0247660   -0.2753480    0.2100346   -0.9381199
   0.0991690    0.0174650    0.0256430   -0.1094294    0.0117989   -0.9939245
   0.1070410    0.0174510    0.0213360   -0.5441421    0.0101575   -0.8389316
   0.1143990    0.0111890    0.0170550    0.2526453   -0.7678630   -0.5886907
   0.1189570    0.0111840    0.0241850    0.7053378   -0.7026238   -0.0939062
   0.1180040    0.0111860    0.0288590    0.6192489   -0.5121310    0.5951912
   0.1114650    0.0111980    0.0338840    0.2695169    0.0407261    0.9621341
   0.1034200    0.0112110    0.0350480    0.2242588    0.2140766    0.9507256
   0.0973950    0.0112200    0.0357930   -0.0986124    0.0151107    0.9950112
   0.1068070    0.0112010    0.0193460   -0.4286872   -0.3876929   -0.8160402
   0.0951780    0.0112240    0.0351050   -0.9288748   -0.2365945    0.2849819
   0.0961320    0.0112210    0.0304300   -0.9606605   -0.0648583    0.2700458
   0.0934810    0.0112240    0.0262010   -0.9609313   -0.2737512    0.0408817
   0.0934610    0.0112230    0.0239200   -0.7873081   -0.4147092   -0.4562480
   0.0958440    0.0112190    0.0226750    0.0157474   -0.4138462   -0.9102106
   0.0978550    0.0112160    0.0236530    0.1120578   -0.3526490   -0.9290219
   0.1024470    0.0112090    0.0234150   -0.4235788   -0.1634127   -0.8909979
   0.1117690    0.0080700    0.0262770    0.1262667   -0.9531010   -0.2750551
   0.1078660    0.0080770    0.0275370   -0.0754223   -0.9068404   -0.4146708
   0.1129090    0.0080700    0.0295040    0.3806702   -0.9020121    0.2036281
   0.1070570    0.0080800    0.0333910    0.3141493   -0.6372175    0.7037500
   0.1024590    0.0080870    0.0350270    0.0555015   -0.6159034    0.7858642
   0.0984580    0.0080930    0.0335750   -0.4785619   -0.8074627    0.3449384
   0.1012250    0.0080870    0.0273110   -0.1939520   -0.8627554   -0.4669431
   0.0989630    0.0080910    0.0292340   -0.2487885   -0.9401077   -0.2330273
   0.1057220    0.0065180    0.0305160   -0.0100827   -0.9992979   -0.0360832
   0.1057170    0.0163290    0.0102970    0.5412832   -0.2045020   -0.8155927
   0.1059140    0.0218290    0.0114500    0.4663510   -0.2351533   -0.8527718
   0.1063200    0.0258850    0.0138210    0.9856281    0.0000242   -0.1689299
   0.1061350    0.0161910    0.0127370    0.3061023   -0.9147923    0.2635460
   0.1005880    0.0193550    0.0108980   -0.4370294   -0.7523836   -0.4928734
   0.1006570    0.0237540    0.0113050   -0.1072925   -0.0908766   -0.9900655
   0.1052400    0.0279480    0.0075190    0.3882882   -0.4916581   -0.7794258
   0.0999720    0.0311790    0.0073070   -0.3131875   -0.5925367   -0.7421684
   0.1050320    0.0309730    0.0062990    0.6750177    0.0535472   -0.7358558
   0.1053100    0.0339980    0.0079260    0.8810506    0.3510562   -0.3170322
   0.1060880    0.0332420    0.0124660    0.8253965    0.5627127   -0.0455522
   0.1068890    0.0324850    0.0171420    0.8508340    0.4703590    0.2341878
   0.1072960    0.0270550    0.0195130    0.8412474    0.0378209    0.5393258
   0.1067970    0.0209350    0.0165990    0.3824408   -0.5606153    0.7344723
   0.1012030    0.0197670    0.0144890   -0.2941058   -0.7595017    0.5802231
   0.0954480    0.0207980    0.0114290    0.0309485   -0.6731629   -0.7388464
   0.0954950    0.0271920    0.0117010    0.0241373   -0.2693902   -0.9627286
   0.0996230    0.0328980    0.0052740   -0.1789241   -0.4140561   -0.8924930
   0.0949710    0.0320730    0.0086510   -0.0119516   -0.6430669   -0.7657167
   0.0998210    0.0378480    0.0064250    0.2643908    0.7718155   -0.5782718
   0.1011110    0.0364730    0.0139480    0.3794255    0.9246832    0.0315787
   0.1020630    0.0357850    0.0195040    0.2857764    0.8165751    0.5015346
   0.1023430    0.0317290    0.0211300    0.1820445    0.3239929    0.9283795
   0.1024580    0.0288420    0.0218070   -0.1437914   -0.3120632    0.9391169
   0.1016800    0.0245100    0.0172670   -0.2448343   -0.5286823    0.8127430
   0.0961210    0.0223100    0.0153610   -0.0193634   -0.6693945    0.7426547
   0.0901910    0.0179790    0.0112850   -0.5275547   -0.8376258    0.1416652
   0.0900170    0.0206610    0.0102680   -0.4306188   -0.1398170   -0.8916382
   0.0898900    0.0274670    0.0095230   -0.3803568   -0.3973711   -0.8351197
   0.0946000    0.0341350    0.0064830   -0.0902221   -0.2258639   -0.9699719
   0.0894130    0.0318670    0.0067440   -0.3850903   -0.3197182   -0.8657284
   0.0946460    0.0373670    0.0067540   -0.1640865    0.5573922   -0.8138732
   0.0952040    0.0373670    0.0100070   -0.1875567    0.9821850    0.0116216
   0.0958310    0.0378480    0.0136660   -0.0558679    0.9897300    0.1315797
   0.0966330    0.0360610    0.0183420   -0.2531965    0.5842800    0.7710437
   0.0968300    0.0326230    0.0194950   -0.2918761    0.0256488    0.9561122
   0.0964230    0.0270550    0.0171210   -0.2084399   -0.3993435    0.8927920
   0.0908180    0.0212790    0.0149440   -0.5155140   -0.3760799    0.7699410
   0.0905170    0.0279480    0.0131820   -0.9856282    0.0000247    0.1689293
   0.0893670    0.0348920    0.0064740   -0.8288559    0.5315896   -0.1743857
   0.0909230    0.0354420    0.0155540   -0.7110141    0.6386467    0.2942607
   0.0914000    0.0314540    0.0183320   -0.5865876    0.0166638    0.8097143
   0.0972980    0.0318230   -0.0081700    0.6735471    0.6885387   -0.2687912
   0.0946920    0.0318230   -0.0089170   -0.1304563    0.4963376   -0.8582716
   0.0891550    0.0324480   -0.0000070    0.0163775    0.9996890    0.0188060
   0.0973490    0.0318230   -0.0039270    0.6806332    0.7211754   -0.1290138
   0.0984890    0.0261980   -0.0082540    0.4391501    0.0117268   -0.8983372
   0.0980010    0.0261980   -0.0034710    0.9999916   -0.0024422   -0.0032922
   0.0875090    0.0318230   -0.0046670   -0.2441586    0.2550158   -0.9356033
   0.0936280    0.0261980   -0.0073970   -0.5057127   -0.1278256   -0.8531795
   0.0809620    0.0318230   -0.0047180   -0.3597268    0.4435780   -0.8208746
   0.0781780    0.0318230   -0.0003570   -0.8802115    0.3673166   -0.3005101
   0.0770330    0.0318230    0.0057480   -0.8052954    0.3248347    0.4959654
   0.0818910    0.0318230    0.0066670    0.0618443    0.4226622    0.9041747
   0.0849750    0.0318230    0.0047270    0.2347293    0.5116243    0.8265245
   0.0921080    0.0318230    0.0059460    0.0180854    0.2946017    0.9554490
   0.0974240    0.0318230    0.0051350    0.5390179    0.3830210    0.7501697
   0.0993610    0.0318230    0.0013670    0.8570826    0.5148970    0.0170417
   0.0985230    0.0199480   -0.0080680    0.8282149   -0.3788881   -0.4129212
   0.0946520    0.0199480   -0.0077040   -0.3124191   -0.2030276   -0.9279946
   0.0982570    0.0261980    0.0019420    0.8671455   -0.2932016    0.4026060
   0.0971970    0.0199480   -0.0026300    0.8811572   -0.3684034    0.2963796
   0.0891220    0.0261980   -0.0023510   -0.0946020   -0.0721800   -0.9928950
   0.0842790    0.0261980   -0.0039080    0.0126965   -0.1009054   -0.9948150
   0.0889600    0.0199480   -0.0032740   -0.2633580   -0.0063908   -0.9646770
   0.0808350    0.0261980   -0.0029190   -0.7084995   -0.2592340   -0.6563735
   0.0800280    0.0261980    0.0007780   -0.9050114   -0.1743119   -0.3880332
   0.0785170    0.0261980    0.0040900   -0.9262548   -0.1937177    0.3233041
   0.0813050    0.0261980    0.0044230   -0.1745036   -0.2338114    0.9564940
   0.0849540    0.0261980    0.0056830    0.1739082   -0.1760172    0.9689034
   0.0901870    0.0261980    0.0036830    0.1456438   -0.3047206    0.9412403
   0.0965630    0.0261980    0.0031290    0.2791635   -0.4017261    0.8721720
   0.0932830    0.0136980   -0.0035910    0.3279141   -0.8025777   -0.4983386
   0.0881560    0.0136980   -0.0024330   -0.0171088   -0.4263052   -0.9044176
   0.0961420    0.0199480    0.0000300    0.4562177   -0.4530795    0.7658879
   0.0896000    0.0136980    0.0003580    0.5140595   -0.4326093    0.7406700
   0.0936260    0.0136980   -0.0009220    0.5434022   -0.6874890    0.4817394
   0.0861100    0.0199480   -0.0046750   -0.0188274   -0.0746611   -0.9970312
   0.0829610    0.0199480   -0.0020240   -0.7170865   -0.1986585   -0.6680732
   0.0799190    0.0199480    0.0001610   -0.8756020   -0.1454726   -0.4606071
   0.0797270    0.0199480    0.0037480   -0.5740777   -0.2350179    0.7843478
   0.0836630    0.0199480    0.0037530    0.1222452   -0.0906648    0.9883501
   0.0897410    0.0199480    0.0011580    0.3868727   -0.2099158    0.8979225
   0.0885400    0.0121350   -0.0009770    0.1139775   -0.9934801   -0.0025463
   0.0850970    0.0136980   -0.0032270   -0.3233852   -0.5135888   -0.7947632
   0.0876910    0.0136980    0.0028520    0.4971642   -0.3758537    0.7820242
   0.0817000    0.0136980    0.0016240   -0.7216334   -0.6758763   -0.1497881
   0.0843610    0.0136980    0.0037570   -0.0876959   -0.5699787    0.8169662
   0.0605950    0.0207480   -0.0218770   -0.8134796    0.5794504    0.0498815
   0.0602410    0.0175460   -0.0238880   -0.1713547    0.5833506   -0.7939393
   0.0590940    0.0184030   -0.0214870   -0.9227000    0.3855185    0.0005082
   0.0613800    0.0165990   -0.0174290   -0.8374043    0.1684103    0.5199923
   0.0658850    0.0261160   -0.0186000   -0.4658082    0.7201097   -0.5142613
   0.0678080    0.0220110   -0.0076920   -0.7008544    0.4219421    0.5751244
   0.0667340    0.0255300   -0.0137860   -0.6537739    0.7037149    0.2781459
   0.0598650    0.0155160   -0.0260210   -0.5310876    0.1379617   -0.8360099
   0.0655300    0.0194850   -0.0206110   -0.1403778    0.5094508   -0.8489723
   0.0592760    0.0156520   -0.0204510   -0.9551037   -0.1430491    0.2594492
   0.0612400    0.0127190   -0.0182210   -0.8423297   -0.3597914    0.4012864
   0.0685060    0.0161020   -0.0037320   -0.5660133    0.0236274    0.8240575
   0.0723230    0.0293190   -0.0177230   -0.0195443    0.9995863   -0.0211024
   0.0716030    0.0289580   -0.0218070    0.0761408    0.8348265   -0.5452222
   0.0712590    0.0251680   -0.0237580   -0.2145273    0.3346247   -0.9176079
   0.0748260    0.0223270   -0.0035270   -0.0757985    0.0748545    0.9943095
   0.0746860    0.0253490   -0.0043180   -0.0667138    0.5139667    0.8552120
   0.0736230    0.0293640   -0.0103510   -0.0934034    0.9302716    0.3547825
   0.0605630    0.0113210   -0.0220600   -0.5550936   -0.8316949    0.0124371
   0.0649500    0.0160120   -0.0239010    0.0433787    0.4709729   -0.8810805
   0.0645850    0.0124040   -0.0259730    0.1231719   -0.3695710   -0.9210027
   0.0651120    0.0099680   -0.0229870   -0.1733882   -0.9266611   -0.3335201
   0.0710440    0.0182230   -0.0249750   -0.1841992    0.1513983   -0.9711587
   0.0674110    0.0098780   -0.0099480   -0.2387159   -0.9666062   -0.0932047
   0.0682700    0.0099680   -0.0050730   -0.4492221   -0.5650559    0.6920342
   0.0745470    0.0142530   -0.0051120    0.0622878    0.0777998    0.9950213
   0.0786950    0.0261160   -0.0172140    0.3821083    0.8515719   -0.3589130
   0.0796190    0.0265220   -0.0119740    0.2823107    0.9589936    0.0251394
   0.0778570    0.0237700   -0.0219670    0.4321156    0.5490649   -0.7154046
   0.0773730    0.0180420   -0.0247100    0.2929741    0.2272662   -0.9287175
   0.0807900    0.0142530   -0.0053320    0.2543504    0.0785920    0.9639135
   0.0809190    0.0213350   -0.0046010    0.3955652    0.1161720    0.9110611
   0.0807900    0.0235000   -0.0053320    0.3284826    0.7217211    0.6092765
   0.0657880    0.0105540   -0.0191480   -0.1798610   -0.9550567    0.2356198
   0.0664650    0.0120420   -0.0153100   -0.0655029   -0.9977866    0.0114594
   0.0711190    0.0128100   -0.0245490   -0.0415051   -0.2995091   -0.9531902
   0.0718600    0.0103740   -0.0203450   -0.0699895   -0.9664082   -0.2472989
   0.0773730    0.0133060   -0.0247100    0.1203933    0.0273978   -0.9923481
   0.0729460    0.0105540   -0.0141910   -0.1520835   -0.9869895   -0.0521763
   0.0744390    0.0081180   -0.0057210   -0.1831727   -0.9812651    0.0597205
   0.0749010    0.0098780   -0.0031000   -0.1272062   -0.3060103    0.9434915
   0.0810590    0.0080280   -0.0038090    0.3462392   -0.0593109    0.9362695
   0.0852730    0.0257100   -0.0155460   -0.0082347    0.4956402   -0.8684889
   0.0847460    0.0223270   -0.0185340    0.6522006    0.4303627   -0.6240371
   0.0860470    0.0255300   -0.0111590    0.6362284    0.7549899    0.1587570
   0.0852510    0.0257550   -0.0156690   -0.4872103    0.2262154   -0.8434766
   0.0841550    0.0164180   -0.0218840    0.6604675    0.2387125   -0.7118982
   0.0867880    0.0125390   -0.0069550    0.8203048    0.0647818    0.5682458
   0.0864330    0.0176360   -0.0089660    0.8304421    0.0701220    0.5526742
   0.0864540    0.0240860   -0.0088450    0.8259117    0.2990463    0.4779553
   0.0774600    0.0099680   -0.0242210   -0.0615977   -0.5869768   -0.8072571
   0.0781150    0.0086140   -0.0205050   -0.0241828   -0.9985758   -0.0475562
   0.0838650    0.0138020   -0.0235290    0.5689367    0.1204774   -0.8135086
   0.0792530    0.0096070   -0.0140460    0.0158641   -0.9972204   -0.0728001
   0.0804790    0.0079380   -0.0071000    0.0298012   -0.9660733   -0.2565430
   0.0809510    0.0068550   -0.0044180    0.1089193   -0.9254585    0.3628542
   0.0865510    0.0096070   -0.0082960    0.7973610   -0.5895588    0.1289801
   0.0861190    0.0173200   -0.0143130    0.9846914   -0.0017388   -0.1742983
   0.0838330    0.0101930   -0.0237130    0.6706146   -0.5505971   -0.4971104
   0.0850140    0.0105540   -0.0170100    0.6267125   -0.7719284   -0.1065734
   0.0859500    0.0096070   -0.0117080    0.5962686   -0.7744408   -0.2114360
   0.0944280    0.0283150    0.0334560    0.9964949   -0.0036175    0.0835759
   0.0910680    0.0336480    0.0350210    0.6145043    0.5806423    0.5340777
   0.0886460    0.0264950    0.0380480    0.3799481   -0.0214925    0.9247581
   0.0913330    0.0220050    0.0348990    0.8245217   -0.4443684    0.3502865
   0.0921940    0.0278080    0.0288070    0.9877241   -0.0488088   -0.1483872
   0.0908740    0.0325290    0.0294220    0.9480622    0.3177553   -0.0144824
   0.0896650    0.0212750    0.0299870    0.8946219   -0.4309996   -0.1178604
   0.0838830    0.0313190    0.0383720   -0.3675361    0.4133647    0.8330947
   0.0891050    0.0371920    0.0302490    0.5183867    0.7987781    0.3053340
   0.0857050    0.0374070    0.0318330   -0.0733587    0.8511481    0.5197744
   0.0834970    0.0277740    0.0385530   -0.7565665    0.2029944    0.6216112
   0.0820330    0.0248450    0.0392350   -0.6875714    0.1431214    0.7118721
   0.0832890    0.0216990    0.0386490   -0.0226290   -0.4501014    0.8926907
   0.0892980    0.0205360    0.0358480    0.4637340   -0.5166976    0.7197044
   0.0869660    0.0151920    0.0312450    0.6827868   -0.7198881    0.1247528
   0.0919520    0.0270860    0.0213340    0.9592673   -0.2307248   -0.1630103
   0.0920480    0.0325990    0.0212890    0.9838532    0.0740512   -0.1629396
   0.0915740    0.0391220    0.0215110    0.7819167    0.6143791   -0.1055676
   0.0868890    0.0164940    0.0236950    0.6679817   -0.6293300   -0.3971702
   0.0893680    0.0200460    0.0225390    0.7474962   -0.5385441   -0.3888696
   0.0838410    0.0357130    0.0327030   -0.4631940    0.7183292    0.5190901
   0.0805640    0.0331160    0.0342300   -0.8542948    0.2512771    0.4550168
   0.0824470    0.0287900    0.0333520   -0.9708528   -0.1668397    0.1720734
   0.0880600    0.0399550    0.0231490   -0.0479987    0.9984684   -0.0275149
   0.0838690    0.0397170    0.0251040   -0.2174081    0.9740371    0.0631299
   0.0824700    0.0219280    0.0333420   -0.9546402    0.2834297    0.0912667
   0.0806140    0.0179290    0.0342080   -0.7628263   -0.3629641    0.5351198
   0.0841920    0.0145650    0.0325390    0.0245680   -0.8453673    0.5336202
   0.0827640    0.0131070    0.0256190    0.0935044   -0.9571247   -0.2741700
   0.0894380    0.0285490    0.0149210    0.8093180   -0.2637812   -0.5248084
   0.0890210    0.0352420    0.0151160    0.7502605    0.4067445   -0.5212179
   0.0864060    0.0382710    0.0163350    0.0128054    0.9347825   -0.3549896
   0.0820490    0.0185700    0.0183660    0.0802213   -0.7719118   -0.6306479
   0.0837370    0.0223440    0.0175800    0.5366710   -0.6158327   -0.5768313
   0.0801920    0.0382430    0.0268180   -0.7315506    0.6271503    0.2674250
   0.0798590    0.0360470    0.0269740   -0.9379625    0.1688541    0.3028444
   0.0816940    0.0287970    0.0261180   -0.8953042   -0.0733058    0.4393821
   0.0824480    0.0359520    0.0181820   -0.3367971    0.9251584   -0.1750702
   0.0790510    0.0354910    0.0197660   -0.5498316    0.8334139   -0.0557367
   0.0806400    0.0219880    0.0266090   -0.8024725    0.3282310    0.4982994
   0.0772040    0.0159580    0.0282120   -0.9404633    0.0581163    0.3348898
   0.0797050    0.0136590    0.0270460   -0.5603787   -0.8281387   -0.0127318
   0.0797280    0.0185630    0.0194490   -0.5377309   -0.7148351   -0.4470528
   0.0853980    0.0291650    0.0092190    0.6208132   -0.4572221   -0.6368194
   0.0858950    0.0332730    0.0089880    0.5771191    0.3034579   -0.7581866
   0.0831110    0.0359630    0.0102870   -0.0116484    0.8799149   -0.4749884
   0.0770300    0.0242440    0.0131210   -0.6501524   -0.7332914   -0.1989612
   0.0791320    0.0224510    0.0121410   -0.0451044   -0.8715509   -0.4882260
   0.0813360    0.0239210    0.0111130    0.2872048   -0.8039732   -0.5207116
   0.0756060    0.0325000    0.0213720   -0.7884855    0.2571778    0.5587041
   0.0768690    0.0269350    0.0207820   -0.7246215    0.0249655    0.6886948
   0.0776200    0.0348780    0.0128470   -0.3178089    0.9372842   -0.1431633
   0.0736610    0.0332340    0.0146920   -0.4756025    0.8792606   -0.0265145
   0.0761440    0.0234450    0.0211210   -0.9487040   -0.2610585    0.1783514
   0.0786430    0.0289270    0.0047840    0.3082294    0.0184796   -0.9511325
   0.0776290    0.0268430    0.0052560    0.0935597   -0.6975613   -0.7103906
   0.0775050    0.0302740    0.0053140   -0.0022387    0.5794518   -0.8150034
   0.0738760    0.0309380    0.0070060   -0.3483289    0.7775685   -0.5235019
   0.0716350    0.0287840    0.0156380   -0.8140822   -0.4738724    0.3357309
   0.0738870    0.0276750    0.0070010   -0.4680646   -0.8187450   -0.3325239
   0.0710040    0.0315380    0.0159310   -0.8621338    0.3899133    0.3235628
   0.0698020    0.0299690    0.0089060   -0.9150687    0.1338744   -0.3804300
   0.0751970    0.0285250    0.0044930   -0.3321894   -0.0305646   -0.9427173
  -0.0098000    0.0064470    0.0063340   -0.9833311   -0.0663923    0.1692690
  -0.0079660    0.0085350    0.0069630   -0.8140357    0.3668232    0.4503183
  -0.0088450    0.0093520    0.0032460   -0.9470914    0.3204673   -0.0178513
  -0.0055530    0.0035810    0.0130110   -0.5982116    0.3974884    0.6958059
  -0.0045540    0.0017290    0.0158190   -0.8307927   -0.2797787    0.4811521
  -0.0057920    0.0024380    0.0098800   -0.6987598   -0.7124106   -0.0648528
  -0.0073850    0.0048870    0.0046390   -0.6398593   -0.6669702   -0.3817471
  -0.0087500    0.0080450    0.0017710   -0.8593840   -0.2476048   -0.4473823
  -0.0049610    0.0196450    0.0021820   -0.8915628    0.4347580    0.1268905
  -0.0020300    0.0161060    0.0133410   -0.7531390    0.3420146    0.5619677
   0.0003690    0.0105540    0.0183770   -0.6035905    0.2383633    0.7608295
  -0.0053860    0.0183390   -0.0022490   -0.9025843    0.3819635   -0.1986089
  -0.0052000    0.0159440   -0.0048850   -0.8438931    0.1976952   -0.4987595
   0.0034720    0.0012990    0.0217010   -0.4916062    0.0983810    0.8652425
   0.0053960   -0.0051260    0.0226950   -0.3492376   -0.1105421    0.9304910
   0.0060550   -0.0087740    0.0208010   -0.3763292   -0.8209077    0.4295193
   0.0047650   -0.0076300    0.0152540   -0.4823545   -0.8749254   -0.0428902
   0.0024720   -0.0053980    0.0056940   -0.3998711   -0.8668528   -0.2977741
   0.0012150   -0.0028940    0.0024250   -0.5124646   -0.7592243   -0.4011965
  -0.0010940    0.0026050   -0.0021820   -0.5284069   -0.4770382   -0.7022967
  -0.0043060    0.0121870   -0.0056130   -0.5891674   -0.3463555   -0.7300134
   0.0007740    0.0283800   -0.0037790   -0.6985373    0.5259450   -0.4852088
   0.0009140    0.0299050   -0.0006320   -0.6627618    0.7472642   -0.0484041
   0.0026720    0.0299050    0.0093400   -0.6938995    0.6264909    0.3549825
   0.0041830    0.0271820    0.0137060   -0.5018276    0.5316449    0.6822923
   0.0058600    0.0227180    0.0163300   -0.2848450    0.3492555    0.8926835
   0.0087390    0.0144430    0.0198840   -0.2089554    0.3582017    0.9099611
   0.0019430    0.0195060   -0.0108410   -0.4409675    0.1947231   -0.8761453
   0.0116470    0.0067120    0.0244480   -0.0963002    0.3223154    0.9417213
   0.0137540   -0.0002020    0.0257270   -0.1248707    0.0031328    0.9921681
   0.0149860   -0.0065170    0.0229710   -0.0686043   -0.6237262    0.7786264
   0.0148430   -0.0098390    0.0170310    0.0098564   -0.9970150    0.0765761
   0.0136810   -0.0095120    0.0109520    0.0313112   -0.9702111   -0.2402290
   0.0124050   -0.0077150    0.0064820    0.0434577   -0.8894959   -0.4548720
   0.0102730   -0.0039590    0.0001940   -0.0425126   -0.9073761   -0.4181642
   0.0087750   -0.0019450   -0.0051910   -0.1785882   -0.8441393   -0.5055048
   0.0078180    0.0002870   -0.0071810   -0.4492353   -0.5272760   -0.7212265
   0.0063320    0.0061680   -0.0065360   -0.3880132   -0.2619631   -0.8836408
   0.0042660    0.0117750   -0.0095990   -0.2193316   -0.4501601   -0.8655920
   0.0031860    0.0147150   -0.0111860   -0.2696197   -0.2807086   -0.9211449
   0.0082390    0.0335220   -0.0054780   -0.3790900    0.7849094   -0.4901102
   0.0097700    0.0245930   -0.0105700   -0.1937644    0.3589198   -0.9130345
   0.0109630    0.0336850    0.0102260   -0.4232591    0.8641750    0.2721274
   0.0121090    0.0318880    0.0139580   -0.2704431    0.5139470    0.8140756
   0.0162850    0.0188220    0.0174750    0.0431449    0.3401037    0.9393977
   0.0113490    0.0177870   -0.0121180   -0.0292946   -0.0386602   -0.9988229
   0.0213960    0.0038500    0.0233640    0.1144633    0.4223074    0.8991966
   0.0231390   -0.0007770    0.0261030    0.0779850    0.0855853    0.9932741
   0.0243130   -0.0056780    0.0251980    0.5143294   -0.4244002    0.7452179
   0.0242530   -0.0087810    0.0200680    0.4232852   -0.8915060    0.1613897
   0.0233930   -0.0079100    0.0165380    0.4780900   -0.8334129   -0.2772237
   0.0202860   -0.0041530    0.0047100    0.3001138   -0.8739375   -0.3823152
   0.0177620   -0.0017030   -0.0058240    0.1377561   -0.9656204   -0.2204552
   0.0168290   -0.0013770   -0.0106090   -0.1559995   -0.7473111   -0.6459027
   0.0157740    0.0010190   -0.0128990   -0.2578639   -0.2666271   -0.9286637
   0.0147760    0.0057010   -0.0113270   -0.3566951    0.0841673   -0.9304217
   0.0130060    0.0121250   -0.0114580   -0.0906472   -0.1530737   -0.9840485
   0.0170040    0.0373560   -0.0018180   -0.2463115    0.9614013   -0.1226303
   0.0168990    0.0357770   -0.0048460   -0.2466653    0.7463122   -0.6182025
   0.0173960    0.0314220   -0.0087430   -0.1984843    0.4559952   -0.8675669
   0.0189360    0.0243990   -0.0108530   -0.1123900    0.1226239   -0.9860689
   0.0193000    0.0372470    0.0110410   -0.2818350    0.9258415    0.2517669
   0.0204430    0.0353420    0.0145840   -0.2167175    0.6160212    0.7573318
   0.0217980    0.0309860    0.0155500   -0.1701956    0.1375935    0.9757569
   0.0264020    0.0153070    0.0174680    0.0833940    0.2601000    0.9619737
   0.0298240    0.0055070    0.0217510    0.3416758    0.2005355    0.9181738
   0.0304910    0.0028930    0.0215060    0.7209029   -0.4733139    0.5062340
   0.0301990    0.0013700    0.0174960    0.7467468   -0.6647319    0.0223776
   0.0267740    0.0014780   -0.0017630    0.4283227   -0.9009233   -0.0698345
   0.0258900    0.0005520   -0.0082080    0.3470357   -0.9360899   -0.0574615
   0.0251980    0.0003350   -0.0124660    0.3529116   -0.7847551   -0.5095222
   0.0237050    0.0043090   -0.0148040   -0.1068986   -0.0448713   -0.9932569
   0.0232500    0.0068130   -0.0135180   -0.1784834    0.1879850   -0.9658185
   0.0217410    0.0140540   -0.0109030   -0.2166305    0.0244118   -0.9759484
   0.0252470    0.0378150   -0.0063180   -0.0715044    0.8746035   -0.4795371
   0.0256960    0.0384140   -0.0028440    0.0138866    0.9901285   -0.1394732
   0.0272990    0.0383060    0.0060770    0.0419868    0.9983758   -0.0385081
   0.0256550    0.0333510   -0.0108960   -0.1840468    0.4828769   -0.8561289
   0.0276980    0.0237140   -0.0141760   -0.3445177    0.2309120   -0.9099380
   0.0276910    0.0391220    0.0095610    0.0687495    0.9820662    0.1755546
   0.0301290    0.0351480    0.0172550   -0.2291097    0.6715480    0.7046503
   0.0313770    0.0311180    0.0181140   -0.2515227   -0.1785436    0.9512405
   0.0343510    0.0181620    0.0149870    0.1738126    0.0158668    0.9846509
   0.0368010    0.0113010    0.0182990    0.3568870    0.2593931    0.8974112
   0.0376520    0.0075450    0.0173240    0.6812696   -0.4085693    0.6074067
   0.0371550    0.0071640    0.0139210    0.6413657   -0.7454823    0.1814007
   0.0358300    0.0048220    0.0027950    0.5359932   -0.8442146   -0.0036010
   0.0351870    0.0050410   -0.0005190    0.3568114   -0.9283347    0.1043090
   0.0348000    0.0032990   -0.0054010    0.4104921   -0.9026573   -0.1292515
   0.0337460    0.0048220   -0.0090230    0.4751176   -0.6555335   -0.5869746
   0.0316410    0.0102130   -0.0126490    0.1552544   -0.2647040   -0.9517499
   0.0290730    0.0177260   -0.0156240   -0.3451527   -0.2470713   -0.9054421
   0.0347570    0.0359880   -0.0071710    0.3061480    0.8997441   -0.3110207
   0.0348140    0.0340830   -0.0097810    0.0003370    0.6718027   -0.7407301
   0.0350310    0.0376210   -0.0030920    0.2522267    0.9641376   -0.0825858
   0.0378400    0.0347900    0.0084690    0.1440663    0.9859676   -0.0843378
   0.0362780    0.0256990   -0.0144200   -0.1780862    0.5436054   -0.8202308
   0.0367140    0.0211250   -0.0190030   -0.2761855    0.2263294   -0.9340752
   0.0396000    0.0340830    0.0173610   -0.2330274    0.9680960   -0.0921322
   0.0398790    0.0358240    0.0216280   -0.5896183    0.7729671    0.2342478
   0.0405670    0.0345720    0.0236010   -0.5361874    0.1545275    0.8298339
   0.0416970    0.0298360    0.0227030   -0.3456527   -0.4719004    0.8110698
   0.0421460    0.0252630    0.0181820   -0.2208940   -0.5748755    0.7878604
   0.0436910    0.0162790    0.0130870    0.1610695   -0.4029110    0.9009547
   0.0442930    0.0139930    0.0129800    0.4849880   -0.2493218    0.8382274
   0.0445510    0.0118700    0.0111570    0.6192530   -0.7646323    0.1785023
   0.0438570    0.0126860    0.0084880    0.5001403   -0.8612366    0.0901736
   0.0438570    0.0083310    0.0017600    0.2772411   -0.8936848    0.3527957
   0.0433450    0.0071870   -0.0029090    0.3506673   -0.9334228   -0.0758575
   0.0422440    0.0089300   -0.0064590    0.3615268   -0.6871288   -0.6302003
   0.0404650    0.0129580   -0.0103340    0.3336786   -0.6282751   -0.7028008
   0.0379660    0.0176950   -0.0171930    0.0591592   -0.5776704   -0.8141235
   0.0454520    0.0305670   -0.0068340   -0.0136541    0.9653150    0.2607306
   0.0438740    0.0331810   -0.0117610   -0.1577022    0.8743356   -0.4589850
   0.0467470    0.0303500    0.0001720   -0.0465389    0.9585726   -0.2810208
   0.0466200    0.0331810    0.0038120   -0.0061182    0.9824490   -0.1864313
   0.0475260    0.0345960    0.0111410   -0.1124341    0.9095203   -0.4001642
   0.0472770    0.0403130    0.0185470   -0.1196616    0.9164314   -0.3818829
   0.0442800    0.0297510   -0.0147530   -0.2169401    0.5059853   -0.8348149
   0.0448050    0.0244690   -0.0199210    0.0757481    0.2185107   -0.9728902
   0.0473030    0.0421090    0.0214610   -0.2141777    0.9168688   -0.3368672
   0.0482520    0.0430350    0.0282750    0.0415376    0.9552260    0.2929469
   0.0491230    0.0408030    0.0297710    0.0709091    0.2400067    0.9681780
   0.0513780    0.0297510    0.0255030    0.2532734   -0.4835067    0.8378984
   0.0519690    0.0271380    0.0248270    0.2732323   -0.6402819    0.7179019
   0.0517880    0.0249050    0.0203540    0.3207687   -0.7891688    0.5237557
   0.0513320    0.0215300    0.0125630    0.4586254   -0.5346132    0.7098250
   0.0524170    0.0156500    0.0096430    0.4564149   -0.6885152    0.5635888
   0.0525200    0.0123840    0.0051830    0.3684787   -0.7757689    0.5122558
   0.0524690    0.0104780    0.0019560    0.3487237   -0.9118777    0.2164965
   0.0509940    0.0109680   -0.0056550    0.0956581   -0.9234438   -0.3716195
   0.0488510    0.0159220   -0.0101630   -0.0748711   -0.6332613   -0.7703081
   0.0469580    0.0195150   -0.0153500    0.2438560   -0.7468410   -0.6186782
   0.0456310    0.0214210   -0.0199410    0.2353843   -0.5022903   -0.8320449
   0.0536570    0.0348380   -0.0056790   -0.4514041    0.8836303   -0.1242246
   0.0527010    0.0340210   -0.0123650   -0.0260947    0.9559475   -0.2923754
   0.0525720    0.0333130   -0.0141840    0.0382067    0.7756749   -0.6299751
   0.0530270    0.0304820   -0.0159770    0.0180922    0.5545698   -0.8319405
   0.0537880    0.0371780   -0.0013240   -0.1870384    0.9790023    0.0810628
   0.0552990    0.0341300    0.0025360   -0.0032130    0.9803291    0.1973437
   0.0575030    0.0324420    0.0124280    0.5556325    0.8313334    0.0125426
   0.0553740    0.0226970   -0.0146770    0.4488468   -0.2999019   -0.8417811
   0.0535370    0.0274340   -0.0177810    0.1404782    0.1855750   -0.9725368
   0.0589340    0.0301010    0.0169350    0.8160025    0.3159335    0.4840722
   0.0594850    0.0274340    0.0159500    0.7871248   -0.3039623    0.5366950
   0.0590730    0.0269440    0.0128490    0.6642561   -0.6337975    0.3963137
